# x y z r clumpId
0.097449 0.096395 0.173910 0.007751 0
0.100454 0.100905 0.173203 0.006693 0
0.097327 0.101020 0.178498 0.007711 0
0.280893 0.103094 0.185330 0.010512 1
0.281981 0.098403 0.186820 0.010843 1
0.278366 0.095927 0.186232 0.010603 1
0.460362 0.104731 0.169531 0.012427 2
0.463294 0.101185 0.174362 0.012496 2
0.462046 0.095458 0.168024 0.011710 2
0.638801 0.099534 0.069299 0.008017 3
0.638553 0.101702 0.067977 0.009020 3
0.816634 0.098795 0.069176 0.011549 4
0.820569 0.101846 0.067709 0.011887 4
0.999012 0.095662 0.099941 0.007513 5
1.002179 0.097126 0.095802 0.008035 5
1.001429 0.096429 0.092206 0.007805 5
1.183978 0.098994 0.154989 0.013223 6
1.180095 0.095909 0.153267 0.010873 6
1.181274 0.102921 0.157017 0.010751 6
1.364711 0.103608 0.121439 0.014137 7
1.361817 0.100370 0.123992 0.013898 7
1.356116 0.099348 0.125861 0.014835 7
1.540077 0.096064 0.226424 0.009532 8
1.540077 0.096989 0.223910 0.008193 8
1.720989 0.099886 0.236819 0.012615 9
1.724853 0.103068 0.238094 0.012262 9
0.103160 0.284780 0.163798 0.007056 10
0.101598 0.284468 0.160123 0.007743 10
0.101066 0.284644 0.167761 0.008133 10
0.284951 0.281499 0.187355 0.011737 11
0.276210 0.277247 0.186354 0.011921 11
0.277301 0.277202 0.183683 0.012032 11
0.455709 0.277380 0.097478 0.012085 12
0.456323 0.284355 0.096499 0.012826 12
0.462846 0.283075 0.092692 0.011748 12
0.643638 0.275542 0.137745 0.010189 13
0.635606 0.282282 0.139216 0.009012 13
0.636916 0.280363 0.132612 0.009174 13
0.819431 0.283613 0.143029 0.011440 14
0.824993 0.283360 0.147216 0.013913 14
0.999814 0.283647 0.223764 0.007633 15
0.995022 0.278904 0.224004 0.008770 15
0.997852 0.281966 0.222044 0.008767 15
1.177967 0.284687 0.183166 0.010362 16
1.182480 0.275572 0.183216 0.010273 16
1.363513 0.275685 0.216224 0.008850 17
1.359038 0.284416 0.221241 0.008335 17
1.544347 0.277043 0.060110 0.007268 18
1.538958 0.281717 0.055948 0.007401 18
1.542519 0.275725 0.057531 0.008571 18
1.720059 0.276325 0.247709 0.006927 19
1.717443 0.277850 0.248601 0.007735 19
0.101679 0.460546 0.114821 0.012218 20
0.103781 0.457645 0.114401 0.014120 20
0.282176 0.457036 0.082432 0.008504 21
0.279885 0.464053 0.084551 0.008162 21
0.458336 0.456308 0.139513 0.008271 22
0.459418 0.462057 0.135324 0.008172 22
0.640456 0.463346 0.239835 0.010650 23
0.636274 0.458083 0.243000 0.012314 23
0.821821 0.461669 0.220677 0.013034 24
0.823747 0.464738 0.224635 0.014080 24
1.003814 0.455248 0.099713 0.007917 25
1.004308 0.463022 0.100988 0.008792 25
1.178825 0.455387 0.103068 0.011349 26
1.184185 0.458497 0.106567 0.013164 26
1.358283 0.463644 0.099254 0.010801 27
1.361415 0.458997 0.099396 0.011450 27
1.364392 0.456153 0.099289 0.010547 27
1.540966 0.458457 0.245371 0.008747 28
1.544842 0.456156 0.246502 0.008261 28
1.718642 0.455700 0.060520 0.009572 29
1.718139 0.463480 0.061075 0.009506 29
0.101972 0.640544 0.108775 0.010131 30
0.098791 0.642481 0.108597 0.009923 30
0.099061 0.643337 0.109896 0.009143 30
0.279650 0.639422 0.204289 0.010956 31
0.284012 0.642960 0.203849 0.010005 31
0.280155 0.641329 0.205504 0.011802 31
0.463066 0.636474 0.195690 0.012669 32
0.461113 0.642685 0.199782 0.012420 32
0.639944 0.637440 0.166695 0.010437 33
0.642510 0.642700 0.161200 0.011531 33
0.636759 0.644580 0.165314 0.010554 33
0.816333 0.639646 0.100151 0.012709 34
0.818173 0.642553 0.099265 0.013423 34
0.823920 0.639267 0.103908 0.012394 34
0.997592 0.637472 0.083208 0.013373 35
1.000213 0.641267 0.079578 0.011442 35
0.997857 0.637717 0.080029 0.012740 35
1.182064 0.635642 0.076751 0.008739 36
1.179158 0.637068 0.076876 0.009436 36
1.359770 0.644427 0.164802 0.011299 37
1.363916 0.643357 0.167198 0.012186 37
1.362999 0.643978 0.166698 0.010997 37
1.542242 0.643405 0.151324 0.010681 38
1.540341 0.644069 0.148047 0.009999 38
1.535839 0.639286 0.150797 0.008967 38
1.718268 0.642612 0.100823 0.009781 39
1.723319 0.637523 0.097850 0.008273 39
1.720394 0.644999 0.100531 0.009571 39
0.104496 0.816994 0.201450 0.010433 40
0.096262 0.821695 0.206886 0.010597 40
0.281059 0.824637 0.192077 0.012774 41
0.276638 0.818110 0.190680 0.013178 41
0.458967 0.822150 0.160919 0.013468 42
0.461272 0.816019 0.167884 0.013926 42
0.461004 0.816211 0.169998 0.013732 42
0.635690 0.821475 0.114567 0.009723 43
0.639902 0.819335 0.118063 0.010760 43
0.639597 0.816530 0.116202 0.009947 43
0.819649 0.823257 0.181016 0.010643 44
0.817455 0.824346 0.177881 0.010959 44
0.822505 0.820698 0.181773 0.010677 44
0.997121 0.822978 0.147265 0.010029 45
1.002012 0.817763 0.143963 0.010168 45
0.995856 0.822201 0.148747 0.009778 45
1.179482 0.815172 0.186064 0.011030 46
1.177433 0.821640 0.186812 0.011403 46
1.178438 0.824966 0.188626 0.010898 46
1.356207 0.816926 0.136945 0.009205 47
1.362622 0.816851 0.137913 0.009100 47
1.544805 0.823326 0.192879 0.012940 48
1.538023 0.822080 0.191183 0.012004 48
1.535545 0.817921 0.199358 0.013762 48
1.720741 0.819694 0.199963 0.007296 49
1.715514 0.824411 0.200336 0.008408 49
0.096517 1.003111 0.134633 0.006960 50
0.097482 1.000581 0.129303 0.007830 50
0.279505 0.999427 0.177285 0.013403 51
0.278054 1.001210 0.174780 0.012732 51
0.284476 0.997078 0.170794 0.012518 51
0.456565 0.999085 0.083305 0.008240 52
0.455326 0.997881 0.079239 0.008958 52
0.642878 1.001251 0.065848 0.009506 53
0.639251 1.000446 0.065712 0.009457 53
0.643266 0.995714 0.060895 0.008300 53
0.819392 0.999687 0.197832 0.010552 54
0.817722 1.000400 0.199169 0.011021 54
0.823894 1.002345 0.200829 0.009650 54
1.004996 1.001723 0.093480 0.010278 55
1.002563 0.999705 0.097300 0.012507 55
1.184691 0.999700 0.085381 0.010455 56
1.176046 0.996608 0.085414 0.010877 56
1.181626 0.999005 0.088903 0.009767 56
1.364702 0.999042 0.067758 0.009744 57
1.361577 1.000426 0.066744 0.008180 57
1.542600 0.997036 0.122848 0.013103 58
1.539381 1.001983 0.118570 0.013224 58
1.541089 0.997393 0.118940 0.012101 58
1.719614 0.996175 0.163772 0.007784 59
1.722166 1.000089 0.158185 0.008366 59
0.098836 1.184219 0.246131 0.009472 60
0.103640 1.177762 0.248949 0.008570 60
0.277828 1.177986 0.237719 0.011552 61
0.279896 1.176486 0.237235 0.010041 61
0.464329 1.183696 0.165191 0.010007 62
0.458830 1.183560 0.159491 0.010194 62
0.459730 1.184134 0.159196 0.011777 62
0.639953 1.175370 0.208502 0.011534 63
0.643697 1.183742 0.207882 0.011373 63
0.823709 1.184700 0.137134 0.012487 64
0.817650 1.181233 0.140360 0.010655 64
0.818286 1.181744 0.141722 0.012937 64
1.003724 1.175359 0.171044 0.013164 65
1.004209 1.184974 0.177827 0.012603 65
0.995984 1.181337 0.179086 0.012631 65
1.178244 1.175561 0.187385 0.012693 66
1.177442 1.179121 0.190618 0.011975 66
1.361197 1.177408 0.089142 0.010164 67
1.359611 1.177540 0.082567 0.009836 67
1.363046 1.184012 0.086790 0.010201 67
1.541389 1.179243 0.135847 0.010097 68
1.536992 1.178847 0.138178 0.008829 68
1.540719 1.180748 0.143273 0.008950 68
1.715081 1.183651 0.248372 0.012541 69
1.724106 1.182452 0.248917 0.012363 69
1.722757 1.177301 0.248608 0.010638 69
0.101282 1.364034 0.089490 0.008406 70
0.099408 1.360796 0.090350 0.007979 70
0.277008 1.362865 0.112787 0.011554 71
0.280018 1.357725 0.105668 0.013005 71
0.462466 1.358387 0.234989 0.014662 72
0.456408 1.364665 0.242439 0.013957 72
0.464799 1.364673 0.241883 0.012898 72
0.639548 1.361728 0.209860 0.007425 73
0.643224 1.364403 0.204220 0.006857 73
0.824153 1.357214 0.050637 0.013690 74
0.824094 1.358022 0.054088 0.011748 74
0.824463 1.358044 0.054931 0.011628 74
0.998710 1.364494 0.229417 0.008127 75
1.000873 1.362266 0.231306 0.008332 75
1.003337 1.361157 0.231842 0.007660 75
1.184506 1.363555 0.184050 0.008922 76
1.180445 1.364778 0.186643 0.008375 76
1.176898 1.356222 0.191536 0.008483 76
1.355506 1.358335 0.187442 0.011960 77
1.357052 1.363298 0.183096 0.011459 77
1.542886 1.360960 0.210383 0.009600 78
1.544875 1.360402 0.215596 0.007917 78
1.722900 1.357379 0.221527 0.007449 79
1.715524 1.362417 0.223550 0.008469 79
1.719762 1.362780 0.223422 0.007333 79
0.102272 1.544088 0.152357 0.012576 80
0.101433 1.535312 0.155754 0.014171 80
0.275735 1.535808 0.136338 0.007120 81
0.277750 1.541331 0.135738 0.007574 81
0.284946 1.540306 0.134792 0.008065 81
0.459301 1.543881 0.068974 0.012467 82
0.458987 1.542296 0.067961 0.011137 82
0.635671 1.543318 0.096910 0.012024 83
0.642388 1.543118 0.101542 0.013461 83
0.640616 1.538296 0.097200 0.012778 83
0.824684 1.541004 0.181585 0.012133 84
0.817127 1.541567 0.180311 0.010888 84
1.000741 1.543072 0.222526 0.010519 85
1.003184 1.541136 0.220502 0.008514 85
1.004291 1.543295 0.216749 0.008840 85
1.178510 1.536814 0.186972 0.009466 86
1.175696 1.542410 0.195258 0.008317 86
1.180305 1.538762 0.190076 0.008450 86
1.363833 1.536556 0.114872 0.008319 87
1.355816 1.539431 0.111568 0.009464 87
1.538452 1.536109 0.134619 0.008735 88
1.540269 1.538084 0.130042 0.009479 88
1.722673 1.542642 0.058851 0.007771 89
1.719974 1.539307 0.057248 0.008549 89
0.095721 1.723618 0.091445 0.009573 90
0.104212 1.723621 0.096780 0.010895 90
0.102095 1.719177 0.092174 0.009579 90
0.283320 1.724198 0.110835 0.013186 91
0.277433 1.720889 0.115193 0.011965 91
0.278103 1.718395 0.113284 0.011345 91
0.464059 1.718494 0.154370 0.008480 92
0.463150 1.717363 0.148561 0.007386 92
0.636771 1.722728 0.170421 0.012667 93
0.642599 1.719489 0.174721 0.012161 93
0.816510 1.715683 0.176482 0.010647 94
0.817747 1.715562 0.177133 0.010665 94
0.819519 1.715569 0.180377 0.010087 94
0.999627 1.720543 0.225768 0.013696 95
0.999497 1.723098 0.224368 0.012089 95
0.999756 1.716509 0.218469 0.011479 95
1.180045 1.716726 0.227303 0.009234 96
1.179394 1.720227 0.226413 0.009099 96
1.361789 1.715524 0.107888 0.009416 97
1.358297 1.720580 0.105444 0.009237 97
1.363516 1.724644 0.107606 0.009016 97
1.538102 1.721561 0.067922 0.010442 98
1.542088 1.715847 0.066890 0.011744 98
1.538285 1.716278 0.068329 0.012512 98
1.721460 1.719234 0.248051 0.012553 99
1.716803 1.717142 0.253910 0.012909 99
